ply
format ascii 1.0
element vertex 1321
property float x
property float y
property float z
property uchar red
property uchar green
property uchar blue
end_header
-0.186986 0.700000 0.228485 137 137 137
-0.186986 0.712258 0.240000 133 133 133
-0.200319 0.720000 0.240000 134 134 134
-0.176782 0.280000 0.160000 0 0 0
-0.166986 0.270204 0.160000 0 0 0
-0.166986 0.280000 0.150204 0 0 0
-0.166986 0.280000 0.169796 0 0 0
-0.166986 0.300000 0.150638 0 0 0
-0.166986 0.300000 0.169362 0 0 0
-0.177036 0.300000 0.180000 0 0 0
-0.166986 0.320000 0.151111 0 0 0
-0.166986 0.310204 0.180000 0 0 0
-0.166986 0.320000 0.189796 0 0 0
-0.174082 0.340000 0.140000 0 0 0
-0.166986 0.332903 0.140000 0 0 0
-0.166986 0.340000 0.132903 0 0 0
-0.177087 0.340000 0.200000 0 0 0
-0.166986 0.340000 0.189247 0 0 0
-0.172901 0.360000 0.140000 0 0 0
-0.166986 0.360000 0.134085 0 0 0
-0.166986 0.350363 0.200000 0 0 0
-0.166986 0.360000 0.209637 0 0 0
-0.166986 0.380000 0.135748 0 0 0
-0.166986 0.370000 0.220000 0 0 0
-0.166986 0.380000 0.230000 0 0 0
-0.180832 0.400000 0.140000 138 138 138
-0.166986 0.400000 0.130526 0 0 0
-0.176986 0.400000 0.240000 138 138 138
-0.166986 0.400000 0.229305 0 0 0
-0.166986 0.407826 0.140000 0 0 0
-0.178414 0.420000 0.160000 136 136 136
-0.166986 0.420000 0.152727 14 14 14
-0.166986 0.410309 0.240000 133 133 133
-0.166986 0.426154 0.160000 14 14 14
-0.178236 0.440000 0.180000 136 136 136
-0.166986 0.440000 0.173333 138 138 138
-0.171786 0.460000 0.160000 66 66 66
-0.166986 0.448571 0.160000 135 135 135
-0.166986 0.460000 0.155676 66 66 66
-0.166986 0.446429 0.180000 138 138 138
-0.166986 0.460000 0.171163 136 136 136
-0.177574 0.460000 0.200000 133 133 133
-0.166986 0.460000 0.193571 135 135 135
-0.166986 0.470482 0.140000 0 0 0
-0.166986 0.480000 0.131173 0 0 0
-0.166986 0.480000 0.172483 138 138 138
-0.166986 0.466000 0.200000 135 135 135
-0.178750 0.480000 0.220000 137 137 137
-0.166986 0.480000 0.213548 133 133 133
-0.166986 0.492739 0.120000 0 0 0
-0.166986 0.500000 0.112739 0 0 0
-0.166986 0.500000 0.169247 0 0 0
-0.166986 0.486667 0.220000 133 133 133
-0.181430 0.500000 0.240000 136 136 136
-0.166986 0.500000 0.232121 136 136 136
-0.172171 0.520000 0.100000 0 0 0
-0.166986 0.514815 0.100000 0 0 0
-0.166986 0.520000 0.094815 0 0 0
-0.166986 0.510363 0.180000 0 0 0
-0.166986 0.520000 0.189637 0 0 0
-0.166986 0.502301 0.240000 136 136 136
-0.166986 0.525185 0.100000 0 0 0
-0.166986 0.540000 0.114706 0 0 0
-0.166986 0.530050 0.200000 0 0 0
-0.176935 0.540000 0.200000 0 0 0
-0.166986 0.540000 0.209950 0 0 0
-0.166986 0.560000 0.116393 0 0 0
-0.166986 0.560000 0.209418 0 0 0
-0.167755 0.580000 0.120000 0 0 0
-0.166986 0.580000 0.119231 0 0 0
-0.166986 0.570204 0.220000 0 0 0
-0.176782 0.580000 0.220000 0 0 0
-0.166986 0.580000 0.229796 0 0 0
-0.166986 0.583478 0.120000 0 0 0
-0.166986 0.600000 0.138095 139 139 139
-0.166986 0.600000 0.229071 138 138 138
-0.166986 0.601481 0.140000 139 139 139
-0.166986 0.620000 0.160000 137 137 137
-0.166986 0.610582 0.240000 134 134 134
-0.166986 0.620000 0.160000 137 137 137
-0.166986 0.639167 0.180000 136 136 136
-0.168319 0.640000 0.180000 136 136 136
-0.166986 0.640000 0.180769 136 136 136
-0.166986 0.659231 0.200000 135 135 135
-0.168236 0.660000 0.200000 135 135 135
-0.166986 0.660000 0.200714 135 135 135
-0.166986 0.680000 0.219429 136 136 136
-0.166986 0.680556 0.220000 136 136 136
-0.166986 0.700000 0.238919 135 135 135
-0.166986 0.700392 0.240000 135 135 135
-0.146986 0.270050 0.160000 0 0 0
-0.146986 0.280000 0.150050 0 0 0
-0.146986 0.280000 0.169950 0 0 0
-0.155750 0.300000 0.140000 0 0 0
-0.146986 0.291236 0.140000 0 0 0
-0.146986 0.300000 0.131236 0 0 0
-0.146986 0.300000 0.169637 0 0 0
-0.155221 0.320000 0.140000 0 0 0
-0.146986 0.320000 0.131765 0 0 0
-0.146986 0.310000 0.180000 0 0 0
-0.146986 0.320000 0.190000 0 0 0
-0.146986 0.340000 0.132422 0 0 0
-0.146986 0.340000 0.189583 0 0 0
-0.146986 0.360000 0.133333 0 0 0
-0.146986 0.350050 0.200000 0 0 0
-0.146986 0.360000 0.209950 0 0 0
-0.150457 0.380000 0.120000 0 0 0
-0.146986 0.376529 0.120000 0 0 0
-0.146986 0.380000 0.116529 0 0 0
-0.156986 0.380000 0.220000 0 0 0
-0.146986 0.380000 0.209362 0 0 0
-0.150319 0.400000 0.120000 0 0 0
-0.146986 0.400000 0.119608 0 0 0
-0.146986 0.390256 0.220000 0 0 0
-0.146986 0.400000 0.229744 0 0 0
-0.146986 0.401739 0.120000 0 0 0
-0.146986 0.420000 0.140000 132 132 132
-0.146986 0.420000 0.140000 132 132 132
-0.157295 0.420000 0.240000 133 133 133
-0.146986 0.420000 0.229011 137 137 137
-0.146986 0.420000 0.140000 132 132 132
-0.146986 0.438261 0.160000 137 137 137
-0.146986 0.440000 0.161739 137 137 137
-0.146986 0.430638 0.240000 136 136 136
-0.149139 0.460000 0.140000 67 67 67
-0.146986 0.454247 0.140000 67 67 67
-0.146986 0.460000 0.138047 67 67 67
-0.146986 0.441159 0.160000 137 137 137
-0.150883 0.449334 0.170622 138 138 138
-0.146986 0.460000 0.178841 138 138 138
-0.146986 0.458261 0.180000 138 138 138
-0.146986 0.460000 0.181600 138 138 138
-0.154563 0.480000 0.120000 0 0 0
-0.146986 0.472278 0.120000 0 0 0
-0.146986 0.480000 0.112422 0 0 0
-0.146986 0.468936 0.140000 67 67 67
-0.149812 0.480000 0.140000 68 68 68
-0.146986 0.480000 0.136486 68 68 68
-0.146986 0.480000 0.151304 68 68 68
-0.146986 0.480000 0.164651 68 68 68
-0.146986 0.477692 0.200000 135 135 135
-0.146986 0.480000 0.202069 135 135 135
-0.152700 0.500000 0.100000 0 0 0
-0.146986 0.494286 0.100000 0 0 0
-0.146986 0.500000 0.094286 0 0 0
-0.146986 0.483291 0.140000 68 68 68
-0.146986 0.495172 0.180000 67 67 67
-0.148886 0.500000 0.180000 67 67 67
-0.146986 0.500000 0.184516 67 67 67
-0.146986 0.499259 0.220000 139 139 139
-0.146986 0.500000 0.220690 139 139 139
-0.146986 0.520000 0.095625 0 0 0
-0.146986 0.520000 0.189305 0 0 0
-0.146986 0.520000 0.240000 136 136 136
-0.146986 0.520000 0.240000 136 136 136
-0.149594 0.540000 0.100000 0 0 0
-0.146986 0.540000 0.097391 0 0 0
-0.146986 0.530309 0.200000 0 0 0
-0.146986 0.540000 0.209691 0 0 0
-0.146986 0.520000 0.240000 136 136 136
-0.146986 0.555789 0.100000 0 0 0
-0.146986 0.560000 0.105000 0 0 0
-0.146986 0.560000 0.209011 0 0 0
-0.146986 0.572000 0.120000 0 0 0
-0.160319 0.580000 0.120000 0 0 0
-0.146986 0.580000 0.128421 0 0 0
-0.146986 0.570582 0.220000 0 0 0
-0.146986 0.580000 0.229418 0 0 0
-0.146986 0.589565 0.140000 0 0 0
-0.164128 0.600000 0.140000 139 139 139
-0.146986 0.600000 0.150909 136 136 136
-0.146986 0.590256 0.240000 135 135 135
-0.156729 0.600000 0.240000 135 135 135
-0.146986 0.608000 0.160000 136 136 136
-0.166986 0.620000 0.160000 137 137 137
-0.146986 0.620000 0.172000 131 131 131
-0.146986 0.627143 0.180000 131 131 131
-0.146986 0.640000 0.192857 135 135 135
-0.146986 0.646896 0.200000 135 135 135
-0.146986 0.660000 0.212258 138 138 138
-0.146986 0.668000 0.220000 138 138 138
-0.165933 0.680000 0.220000 136 136 136
-0.146986 0.680000 0.230909 137 137 137
-0.146986 0.682609 0.240000 137 137 137
-0.166593 0.700000 0.240000 135 135 135
-0.137036 0.280000 0.160000 0 0 0
-0.126986 0.290989 0.140000 0 0 0
-0.126986 0.300000 0.130989 0 0 0
-0.126986 0.290204 0.160000 0 0 0
-0.126986 0.300000 0.169796 0 0 0
-0.126986 0.320000 0.131429 0 0 0
-0.136986 0.320000 0.180000 0 0 0
-0.126986 0.320000 0.169418 0 0 0
-0.133914 0.340000 0.120000 0 0 0
-0.126986 0.333072 0.120000 0 0 0
-0.126986 0.340000 0.113072 0 0 0
-0.126986 0.330152 0.180000 0 0 0
-0.126986 0.340000 0.189848 0 0 0
-0.132901 0.360000 0.120000 0 0 0
-0.126986 0.360000 0.114085 0 0 0
-0.137036 0.360000 0.200000 0 0 0
-0.126986 0.360000 0.189362 0 0 0
-0.126986 0.380000 0.115504 0 0 0
-0.126986 0.370256 0.200000 0 0 0
-0.126986 0.380000 0.209744 0 0 0
-0.126986 0.400000 0.102667 0 0 0
-0.137242 0.400000 0.220000 0 0 0
-0.126986 0.400000 0.209071 0 0 0
-0.126986 0.413000 0.120000 0 0 0
-0.126986 0.420000 0.127368 0 0 0
-0.126986 0.410526 0.220000 0 0 0
-0.126986 0.420000 0.229474 0 0 0
-0.126986 0.430909 0.140000 135 135 135
-0.146290 0.440000 0.160000 137 137 137
-0.126986 0.440000 0.143053 135 135 135
-0.126986 0.430204 0.240000 136 136 136
-0.126986 0.446897 0.140000 135 135 135
-0.126986 0.460000 0.122727 70 70 70
-0.143909 0.460000 0.180000 138 138 138
-0.133097 0.480000 0.100000 0 0 0
-0.126986 0.473889 0.100000 0 0 0
-0.126986 0.480000 0.093889 0 0 0
-0.132287 0.480000 0.120000 68 68 68
-0.126986 0.480000 0.113333 68 68 68
-0.126986 0.475200 0.140000 67 67 67
-0.126986 0.480000 0.144800 67 67 67
-0.138244 0.480000 0.180000 135 135 135
-0.126986 0.472973 0.200000 136 136 136
-0.126986 0.480000 0.193710 136 136 136
-0.126986 0.480000 0.212581 133 133 133
-0.130725 0.500000 0.080000 0 0 0
-0.126986 0.496260 0.080000 0 0 0
-0.126986 0.500000 0.076260 0 0 0
-0.126986 0.486471 0.120000 68 68 68
-0.126986 0.481818 0.140000 67 67 67
-0.128700 0.500000 0.160000 68 68 68
-0.126986 0.500000 0.157778 68 68 68
-0.126986 0.494340 0.160000 68 68 68
-0.126986 0.500000 0.165263 68 68 68
-0.126986 0.500000 0.191667 132 132 132
-0.145652 0.500000 0.220000 139 139 139
-0.126986 0.500000 0.210345 135 135 135
-0.128804 0.520000 0.080000 0 0 0
-0.126986 0.520000 0.078182 0 0 0
-0.126986 0.502069 0.160000 68 68 68
-0.126986 0.507895 0.200000 132 132 132
-0.130725 0.520000 0.200000 67 67 67
-0.129048 0.520000 0.220000 133 133 133
-0.126986 0.531111 0.080000 0 0 0
-0.126986 0.540000 0.092308 0 0 0
-0.126986 0.522063 0.220000 133 133 133
-0.126986 0.540000 0.209305 0 0 0
-0.131948 0.540000 0.240000 134 134 134
-0.126986 0.540000 0.235038 134 134 134
-0.126986 0.544545 0.100000 0 0 0
-0.126986 0.560000 0.118889 0 0 0
-0.126986 0.550309 0.220000 0 0 0
-0.136676 0.560000 0.220000 0 0 0
-0.126986 0.544962 0.240000 134 134 134
-0.126986 0.560000 0.229691 0 0 0
-0.126986 0.560833 0.120000 0 0 0
-0.126986 0.578095 0.140000 133 133 133
-0.130063 0.580000 0.140000 133 133 133
-0.126986 0.580000 0.141905 133 133 133
-0.126986 0.580000 0.228950 138 138 138
-0.126986 0.596522 0.160000 190 190 190
-0.132700 0.600000 0.160000 190 190 190
-0.126986 0.600000 0.163333 190 190 190
-0.126986 0.590695 0.240000 139 139 139
-0.126986 0.616000 0.180000 136 136 136
-0.133652 0.620000 0.180000 136 136 136
-0.126986 0.620000 0.183846 136 136 136
-0.126986 0.636800 0.200000 134 134 134
-0.132700 0.640000 0.200000 134 134 134
-0.126986 0.640000 0.202857 134 134 134
-0.126986 0.656552 0.220000 135 135 135
-0.132868 0.660000 0.220000 135 135 135
-0.126986 0.660000 0.223125 135 135 135
-0.126986 0.678000 0.240000 132 132 132
-0.130319 0.680000 0.240000 132 132 132
-0.117975 0.300000 0.140000 0 0 0
-0.106986 0.300000 0.150000 0 0 0
-0.106986 0.290000 0.160000 0 0 0
-0.106986 0.300000 0.170000 0 0 0
-0.106986 0.311173 0.140000 0 0 0
-0.106986 0.320000 0.131173 0 0 0
-0.106986 0.320000 0.169691 0 0 0
-0.106986 0.332658 0.120000 0 0 0
-0.106986 0.340000 0.112658 0 0 0
-0.117138 0.340000 0.180000 0 0 0
-0.106986 0.340000 0.169247 0 0 0
-0.112280 0.360000 0.100000 0 0 0
-0.106986 0.354706 0.100000 0 0 0
-0.106986 0.360000 0.094706 0 0 0
-0.106986 0.350363 0.180000 0 0 0
-0.106986 0.360000 0.189637 0 0 0
-0.110857 0.380000 0.100000 0 0 0
-0.106986 0.380000 0.096129 0 0 0
-0.117242 0.380000 0.200000 0 0 0
-0.106986 0.380000 0.189071 0 0 0
-0.123349 0.400000 0.100000 0 0 0
-0.106986 0.400000 0.098349 0 0 0
-0.106986 0.390526 0.200000 0 0 0
-0.106986 0.400000 0.209474 0 0 0
-0.106986 0.409000 0.100000 0 0 0
-0.115319 0.420000 0.120000 0 0 0
-0.106986 0.420000 0.113750 0 0 0
-0.106986 0.410152 0.220000 0 0 0
-0.106986 0.420000 0.229848 0 0 0
-0.106986 0.424545 0.120000 0 0 0
-0.123924 0.440000 0.140000 135 135 135
-0.106986 0.440000 0.124700 132 132 132
-0.117190 0.440000 0.240000 136 136 136
-0.106986 0.440000 0.229130 134 134 134
-0.120670 0.460000 0.120000 70 70 70
-0.106986 0.454468 0.120000 68 68 68
-0.106986 0.460000 0.118405 68 68 68
-0.106986 0.453605 0.240000 135 135 135
-0.115252 0.480000 0.100000 68 68 68
-0.106986 0.464906 0.120000 68 68 68
-0.123621 0.480000 0.140000 67 67 67
-0.106986 0.480000 0.128054 65 65 65
-0.119053 0.480000 0.200000 136 136 136
-0.106986 0.497241 0.080000 0 0 0
-0.106986 0.500000 0.077241 0 0 0
-0.106986 0.490877 0.100000 0 0 0
-0.106986 0.486780 0.120000 65 65 65
-0.123371 0.500000 0.160000 68 68 68
-0.109339 0.500000 0.200000 134 134 134
-0.106986 0.520000 0.080000 0 0 0
-0.106986 0.520000 0.080000 0 0 0
-0.106986 0.532632 0.100000 0 0 0
-0.118652 0.540000 0.100000 0 0 0
-0.106986 0.540000 0.108750 0 0 0
-0.113287 0.540000 0.220000 90 90 90
-0.106986 0.548182 0.120000 0 0 0
-0.125557 0.560000 0.120000 0 0 0
-0.106986 0.560000 0.123768 0 0 0
-0.106986 0.560000 0.229247 0 0 0
-0.106986 0.546395 0.240000 135 135 135
-0.106986 0.580000 0.131233 68 68 68
-0.125809 0.580000 0.140000 133 133 133
-0.106986 0.570363 0.240000 130 130 130
-0.116623 0.580000 0.240000 130 130 130
-0.114238 0.600000 0.140000 67 67 67
-0.106986 0.600000 0.136615 67 67 67
-0.125058 0.600000 0.160000 190 190 190
-0.106986 0.615000 0.140000 66 66 66
-0.106986 0.620000 0.144231 66 66 66
-0.114649 0.620000 0.160000 70 70 70
-0.106986 0.604138 0.180000 134 134 134
-0.106986 0.620000 0.169425 70 70 70
-0.106986 0.620000 0.195333 135 135 135
-0.115936 0.640000 0.140000 0 0 0
-0.106986 0.621272 0.140000 66 66 66
-0.106986 0.640000 0.131050 0 0 0
-0.118414 0.640000 0.160000 132 132 132
-0.106986 0.640000 0.172308 133 133 133
-0.106986 0.624667 0.200000 135 135 135
-0.106986 0.640000 0.214839 137 137 137
-0.115936 0.660000 0.140000 0 0 0
-0.106986 0.660000 0.131050 0 0 0
-0.116782 0.660000 0.160000 0 0 0
-0.106986 0.660000 0.169796 0 0 0
-0.106986 0.644848 0.220000 137 137 137
-0.106986 0.660000 0.233889 136 136 136
-0.115936 0.680000 0.140000 0 0 0
-0.106986 0.680000 0.131050 0 0 0
-0.116782 0.680000 0.160000 0 0 0
-0.106986 0.680000 0.169796 0 0 0
-0.106986 0.661982 0.240000 136 136 136
-0.115936 0.700000 0.140000 0 0 0
-0.106986 0.700000 0.131050 0 0 0
-0.116782 0.700000 0.160000 0 0 0
-0.106986 0.700000 0.169796 0 0 0
-0.115936 0.720000 0.140000 0 0 0
-0.106986 0.720000 0.131050 0 0 0
-0.116782 0.720000 0.160000 0 0 0
-0.106986 0.720000 0.169796 0 0 0
-0.106986 0.728950 0.140000 0 0 0
-0.106986 0.740000 0.150204 0 0 0
-0.116782 0.740000 0.160000 0 0 0
-0.106986 0.740000 0.169796 0 0 0
-0.116782 0.760000 0.160000 0 0 0
-0.106986 0.760000 0.150204 0 0 0
-0.106986 0.760000 0.169796 0 0 0
-0.106986 0.769796 0.160000 0 0 0
-0.088118 0.120000 0.240000 132 132 132
-0.086986 0.118868 0.240000 132 132 132
-0.086986 0.120000 0.238868 132 132 132
-0.088118 0.140000 0.240000 134 134 134
-0.086986 0.140000 0.236667 134 134 134
-0.088118 0.160000 0.240000 132 132 132
-0.086986 0.160000 0.236667 132 132 132
-0.088118 0.180000 0.240000 139 139 139
-0.086986 0.180000 0.236667 139 139 139
-0.088118 0.200000 0.240000 133 133 133
-0.086986 0.200000 0.236667 133 133 133
-0.088118 0.220000 0.240000 134 134 134
-0.086986 0.220000 0.236667 134 134 134
-0.088118 0.240000 0.240000 136 136 136
-0.086986 0.240000 0.236667 136 136 136
-0.088118 0.260000 0.240000 134 134 134
-0.086986 0.260000 0.236667 134 134 134
-0.088118 0.280000 0.240000 135 135 135
-0.086986 0.280000 0.236667 135 135 135
-0.096986 0.300000 0.160000 0 0 0
-0.088118 0.300000 0.240000 135 135 135
-0.086986 0.300000 0.236667 135 135 135
-0.086986 0.310929 0.140000 0 0 0
-0.086986 0.320000 0.130929 0 0 0
-0.086986 0.310101 0.160000 0 0 0
-0.086986 0.320000 0.169899 0 0 0
-0.088118 0.320000 0.240000 139 139 139
-0.086986 0.320000 0.236667 139 139 139
-0.086986 0.332270 0.120000 0 0 0
-0.086986 0.340000 0.112270 0 0 0
-0.086986 0.340000 0.169529 0 0 0
-0.088118 0.340000 0.240000 135 135 135
-0.086986 0.340000 0.236667 135 135 135
-0.086986 0.354084 0.100000 0 0 0
-0.086986 0.360000 0.094085 0 0 0
-0.086986 0.350101 0.180000 0 0 0
-0.086986 0.360000 0.189899 0 0 0
-0.088118 0.360000 0.240000 135 135 135
-0.086986 0.360000 0.236667 135 135 135
-0.086986 0.380000 0.095267 0 0 0
-0.086986 0.380000 0.189418 0 0 0
-0.088118 0.380000 0.240000 136 136 136
-0.086986 0.380000 0.236667 136 136 136
-0.088294 0.400000 0.080000 0 0 0
-0.086986 0.398692 0.080000 0 0 0
-0.086986 0.400000 0.078692 0 0 0
-0.086986 0.390204 0.200000 0 0 0
-0.086986 0.400000 0.215238 134 134 134
-0.092334 0.400000 0.240000 136 136 136
-0.086986 0.400000 0.229023 134 134 134
-0.086986 0.407368 0.080000 0 0 0
-0.088652 0.420000 0.100000 0 0 0
-0.086986 0.420000 0.098462 0 0 0
-0.086986 0.412766 0.220000 134 134 134
-0.093240 0.420000 0.240000 133 133 133
-0.086986 0.420909 0.100000 0 0 0
-0.100950 0.440000 0.120000 132 132 132
-0.086986 0.440000 0.106961 0 0 0
-0.091796 0.440000 0.240000 134 134 134
-0.086986 0.460000 0.103000 69 69 69
-0.094864 0.480000 0.120000 45 45 45
-0.086986 0.480000 0.114286 45 45 45
-0.086986 0.496989 0.080000 0 0 0
-0.086986 0.500000 0.062500 0 0 0
-0.086986 0.492621 0.100000 0 0 0
-0.088414 0.500000 0.120000 45 45 45
-0.086986 0.500000 0.117273 45 45 45
-0.086986 0.496250 0.120000 45 45 45
-0.086986 0.500000 0.128333 45 45 45
-0.086986 0.507778 0.080000 0 0 0
-0.106986 0.520000 0.080000 0 0 0
-0.086986 0.520000 0.096923 0 0 0
-0.086986 0.501406 0.120000 45 45 45
-0.086986 0.521818 0.100000 0 0 0
-0.086986 0.540000 0.107018 0 0 0
-0.101121 0.560000 0.120000 0 0 0
-0.086986 0.560000 0.112389 45 45 45
-0.091796 0.560000 0.240000 136 136 136
-0.086986 0.579086 0.120000 67 67 67
-0.086986 0.580000 0.120706 67 67 67
-0.086986 0.600000 0.139524 66 66 66
-0.099486 0.600000 0.180000 134 134 134
-0.086986 0.600000 0.174118 135 135 135
-0.086986 0.592308 0.180000 135 135 135
-0.086986 0.600000 0.187143 135 135 135
-0.094407 0.620000 0.120000 0 0 0
-0.086986 0.605157 0.120000 67 67 67
-0.086986 0.620000 0.112579 0 0 0
-0.105584 0.620000 0.140000 66 66 66
-0.086986 0.620000 0.161505 68 68 68
-0.086986 0.612857 0.200000 136 136 136
-0.098750 0.620000 0.200000 135 135 135
-0.086986 0.612500 0.220000 137 137 137
-0.089386 0.620000 0.220000 137 137 137
-0.086986 0.620000 0.222903 137 137 137
-0.094407 0.640000 0.120000 0 0 0
-0.086986 0.640000 0.112579 0 0 0
-0.086986 0.640000 0.169305 0 0 0
-0.097574 0.640000 0.220000 137 137 137
-0.086986 0.640000 0.225625 132 132 132
-0.094407 0.660000 0.120000 0 0 0
-0.086986 0.660000 0.112579 0 0 0
-0.086986 0.660000 0.169305 0 0 0
-0.086986 0.654839 0.240000 136 136 136
-0.095407 0.660000 0.240000 136 136 136
-0.094407 0.680000 0.120000 0 0 0
-0.086986 0.680000 0.112579 0 0 0
-0.086986 0.680000 0.169305 0 0 0
-0.086986 0.687421 0.120000 0 0 0
-0.086986 0.700000 0.131561 0 0 0
-0.086986 0.700000 0.169305 0 0 0
-0.086986 0.720000 0.131561 0 0 0
-0.086986 0.720000 0.169305 0 0 0
-0.086986 0.728439 0.140000 0 0 0
-0.086986 0.740000 0.150695 0 0 0
-0.086986 0.740000 0.169305 0 0 0
-0.086986 0.760000 0.150695 0 0 0
-0.086986 0.760000 0.169305 0 0 0
-0.086986 0.769305 0.160000 0 0 0
-0.066986 0.114599 0.240000 137 137 137
-0.066986 0.120000 0.234599 137 137 137
-0.071196 0.140000 0.220000 135 135 135
-0.066986 0.138519 0.220000 135 135 135
-0.066986 0.140000 0.218519 135 135 135
-0.071196 0.160000 0.220000 134 134 134
-0.066986 0.160000 0.218519 134 134 134
-0.071196 0.180000 0.220000 134 134 134
-0.066986 0.180000 0.214839 134 134 134
-0.071196 0.200000 0.220000 137 137 137
-0.066986 0.200000 0.214839 137 137 137
-0.071196 0.220000 0.220000 136 136 136
-0.066986 0.220000 0.214839 136 136 136
-0.071196 0.240000 0.220000 133 133 133
-0.066986 0.240000 0.214839 133 133 133
-0.071196 0.260000 0.220000 136 136 136
-0.066986 0.260000 0.214839 136 136 136
-0.071196 0.280000 0.220000 134 134 134
-0.066986 0.280000 0.214839 134 134 134
-0.071196 0.300000 0.220000 139 139 139
-0.066986 0.300000 0.214839 139 139 139
-0.077915 0.320000 0.140000 0 0 0
-0.077087 0.320000 0.160000 0 0 0
-0.071196 0.320000 0.220000 136 136 136
-0.066986 0.320000 0.214839 136 136 136
-0.079256 0.340000 0.120000 0 0 0
-0.066986 0.340000 0.131111 0 0 0
-0.066986 0.331111 0.140000 0 0 0
-0.066986 0.330256 0.160000 0 0 0
-0.066986 0.340000 0.172418 139 139 139
-0.071196 0.340000 0.220000 131 131 131
-0.066986 0.340000 0.214839 131 131 131
-0.081070 0.360000 0.100000 0 0 0
-0.066986 0.360000 0.112579 0 0 0
-0.066986 0.352579 0.120000 0 0 0
-0.074422 0.360000 0.180000 139 139 139
-0.066986 0.360000 0.172000 139 139 139
-0.071196 0.360000 0.220000 138 138 138
-0.066986 0.360000 0.214839 138 138 138
-0.066986 0.374493 0.100000 0 0 0
-0.066986 0.380000 0.094493 0 0 0
-0.066986 0.375163 0.180000 69 69 69
-0.066986 0.380000 0.188916 69 69 69
-0.070084 0.380000 0.220000 135 135 135
-0.066986 0.380000 0.216140 135 135 135
-0.066986 0.397391 0.080000 0 0 0
-0.066986 0.400000 0.077391 0 0 0
-0.068957 0.400000 0.200000 134 134 134
-0.066986 0.400000 0.191250 134 134 134
-0.066986 0.400000 0.207119 134 134 134
-0.074741 0.400000 0.220000 135 135 135
-0.066986 0.418750 0.080000 0 0 0
-0.066986 0.420000 0.081667 0 0 0
-0.066986 0.404941 0.200000 134 134 134
-0.066986 0.432222 0.100000 0 0 0
-0.066986 0.440000 0.103088 0 0 0
-0.081430 0.460000 0.100000 69 69 69
-0.066986 0.447000 0.100000 0 0 0
-0.066986 0.460000 0.096000 0 0 0
-0.066986 0.476250 0.100000 44 44 44
-0.066986 0.480000 0.103462 44 44 44
-0.072986 0.500000 0.080000 0 0 0
-0.076807 0.500000 0.100000 45 45 45
-0.066986 0.489977 0.120000 45 45 45
-0.066986 0.500000 0.132857 53 53 53
-0.066986 0.510577 0.100000 0 0 0
-0.066986 0.520000 0.092097 0 0 0
-0.066986 0.506438 0.120000 55 55 55
-0.074486 0.540000 0.100000 45 45 45
-0.066986 0.540000 0.096522 45 45 45
-0.066986 0.547742 0.100000 45 45 45
-0.066986 0.560000 0.109744 68 68 68
-0.066986 0.570000 0.120000 45 45 45
-0.066986 0.580000 0.128108 70 70 70
-0.072280 0.600000 0.100000 0 0 0
-0.066986 0.589412 0.100000 67 67 67
-0.066986 0.600000 0.094706 0 0 0
-0.081000 0.600000 0.120000 67 67 67
-0.066986 0.585882 0.120000 70 70 70
-0.066986 0.600000 0.134328 68 68 68
-0.066986 0.592138 0.140000 68 68 68
-0.085898 0.594649 0.134573 66 66 66
-0.086473 0.600000 0.140000 66 66 66
-0.066986 0.600000 0.146590 68 68 68
-0.082280 0.600000 0.180000 135 135 135
-0.074354 0.600000 0.200000 138 138 138
-0.066986 0.600000 0.195116 138 138 138
-0.066986 0.595059 0.200000 138 138 138
-0.066986 0.600000 0.207119 138 138 138
-0.072280 0.620000 0.100000 0 0 0
-0.066986 0.620000 0.094706 0 0 0
-0.066986 0.604691 0.140000 68 68 68
-0.071490 0.620000 0.180000 66 66 66
-0.066986 0.620000 0.186024 66 66 66
-0.066986 0.620000 0.216812 134 134 134
-0.077986 0.620000 0.220000 137 137 137
-0.072280 0.640000 0.100000 0 0 0
-0.066986 0.640000 0.094706 0 0 0
-0.076623 0.640000 0.180000 0 0 0
-0.066986 0.640000 0.189637 0 0 0
-0.066986 0.623099 0.220000 134 134 134
-0.066986 0.640000 0.237647 136 136 136
-0.072280 0.660000 0.100000 0 0 0
-0.066986 0.660000 0.094706 0 0 0
-0.076623 0.660000 0.180000 0 0 0
-0.066986 0.660000 0.189637 0 0 0
-0.066986 0.640769 0.240000 136 136 136
-0.066986 0.665294 0.100000 0 0 0
-0.066986 0.680000 0.113514 0 0 0
-0.076623 0.680000 0.180000 0 0 0
-0.066986 0.680000 0.189637 0 0 0
-0.066986 0.686486 0.120000 0 0 0
-0.066986 0.700000 0.132346 0 0 0
-0.076623 0.700000 0.180000 0 0 0
-0.066986 0.700000 0.189637 0 0 0
-0.066986 0.720000 0.132346 0 0 0
-0.076623 0.720000 0.180000 0 0 0
-0.066986 0.720000 0.189637 0 0 0
-0.066986 0.727654 0.140000 0 0 0
-0.066986 0.740000 0.151299 0 0 0
-0.076623 0.740000 0.180000 0 0 0
-0.066986 0.740000 0.189637 0 0 0
-0.066986 0.760000 0.151299 0 0 0
-0.076623 0.760000 0.180000 0 0 0
-0.066986 0.760000 0.189637 0 0 0
-0.066986 0.768701 0.160000 0 0 0
-0.076623 0.780000 0.180000 0 0 0
-0.066986 0.780000 0.170363 0 0 0
-0.066986 0.780000 0.189637 0 0 0
-0.066986 0.789637 0.180000 0 0 0
-0.046986 0.112346 0.240000 134 134 134
-0.046986 0.120000 0.232346 134 134 134
-0.046986 0.134493 0.220000 136 136 136
-0.046986 0.140000 0.214493 136 136 136
-0.046986 0.160000 0.214493 133 133 133
-0.053843 0.180000 0.200000 136 136 136
-0.046986 0.177857 0.200000 136 136 136
-0.046986 0.180000 0.197857 136 136 136
-0.053843 0.200000 0.200000 137 137 137
-0.046986 0.200000 0.197857 137 137 137
-0.053843 0.220000 0.200000 133 133 133
-0.046986 0.220000 0.191429 133 133 133
-0.053843 0.240000 0.200000 134 134 134
-0.046986 0.240000 0.191429 134 134 134
-0.053843 0.260000 0.200000 137 137 137
-0.046986 0.260000 0.191429 137 137 137
-0.053843 0.280000 0.200000 135 135 135
-0.046986 0.280000 0.191429 135 135 135
-0.053843 0.300000 0.200000 135 135 135
-0.046986 0.300000 0.191429 135 135 135
-0.053843 0.320000 0.200000 134 134 134
-0.046986 0.320000 0.191429 134 134 134
-0.057170 0.340000 0.140000 0 0 0
-0.046986 0.340000 0.155300 67 67 67
-0.046986 0.333061 0.160000 67 67 67
-0.046986 0.340000 0.172289 137 137 137
-0.053843 0.340000 0.200000 135 135 135
-0.046986 0.340000 0.191429 135 135 135
-0.051661 0.360000 0.120000 67 67 67
-0.047775 0.360000 0.140000 68 68 68
-0.046986 0.360000 0.142400 68 68 68
-0.046986 0.360000 0.171579 139 139 139
-0.053843 0.360000 0.200000 132 132 132
-0.046986 0.360000 0.191429 132 132 132
-0.046986 0.373889 0.100000 0 0 0
-0.046986 0.380000 0.093889 0 0 0
-0.053097 0.380000 0.120000 68 68 68
-0.046986 0.380000 0.113333 68 68 68
-0.048957 0.380000 0.140000 67 67 67
-0.046986 0.380000 0.145600 67 67 67
-0.046986 0.365565 0.180000 139 139 139
-0.046986 0.367500 0.200000 132 132 132
-0.046986 0.380000 0.193496 135 135 135
-0.046986 0.380000 0.212903 136 136 136
-0.046986 0.396260 0.080000 0 0 0
-0.046986 0.400000 0.076260 0 0 0
-0.055167 0.400000 0.120000 68 68 68
-0.046986 0.400000 0.111000 68 68 68
-0.046986 0.400000 0.131571 44 44 44
-0.046986 0.385250 0.140000 67 67 67
-0.046986 0.387742 0.200000 135 135 135
-0.062005 0.400000 0.200000 134 134 134
-0.048986 0.420000 0.060000 0 0 0
-0.046986 0.419802 0.060000 0 0 0
-0.046986 0.420000 0.059802 0 0 0
-0.064986 0.420000 0.080000 0 0 0
-0.047961 0.420000 0.120000 45 45 45
-0.046986 0.420000 0.118750 45 45 45
-0.046986 0.420000 0.121818 45 45 45
-0.046986 0.421053 0.060000 0 0 0
-0.046986 0.430000 0.080000 0 0 0
-0.062240 0.440000 0.100000 0 0 0
-0.046986 0.440000 0.085714 0 0 0
-0.046986 0.428649 0.120000 45 45 45
-0.046986 0.460000 0.082162 0 0 0
-0.046986 0.442703 0.120000 34 34 34
-0.052700 0.460000 0.120000 57 57 57
-0.046986 0.460000 0.109910 0 0 0
-0.046986 0.460000 0.132874 54 54 54
-0.046986 0.465851 0.100000 0 0 0
-0.060133 0.480000 0.120000 45 45 45
-0.046986 0.468942 0.140000 54 54 54
-0.059091 0.480000 0.140000 54 54 54
-0.046986 0.480000 0.146571 67 67 67
-0.055278 0.500000 0.140000 68 68 68
-0.046986 0.500000 0.145037 68 68 68
-0.059377 0.520000 0.100000 0 0 0
-0.056496 0.520000 0.120000 68 68 68
-0.059091 0.520000 0.140000 54 54 54
-0.046986 0.520000 0.146571 68 68 68
-0.049843 0.540000 0.100000 45 45 45
-0.052775 0.540000 0.120000 55 55 55
-0.046986 0.540000 0.132791 55 55 55
-0.046986 0.531058 0.140000 55 55 55
-0.047378 0.560000 0.060000 0 0 0
-0.046986 0.559216 0.060000 0 0 0
-0.046986 0.560000 0.059608 0 0 0
-0.046986 0.560000 0.060851 0 0 0
-0.056986 0.560000 0.120000 45 45 45
-0.046986 0.560000 0.135504 54 54 54
-0.047378 0.580000 0.060000 0 0 0
-0.046986 0.580000 0.059608 0 0 0
-0.046986 0.576364 0.080000 0 0 0
-0.048804 0.580000 0.080000 0 0 0
-0.054910 0.580000 0.100000 0 0 0
-0.046986 0.567525 0.100000 45 45 45
-0.046986 0.580000 0.119091 46 46 46
-0.046986 0.580000 0.121250 46 46 46
-0.046986 0.580392 0.060000 0 0 0
-0.046986 0.600000 0.078182 0 0 0
-0.048804 0.600000 0.080000 0 0 0
-0.046986 0.580556 0.120000 46 46 46
-0.062489 0.600000 0.140000 68 68 68
-0.062044 0.600000 0.200000 138 138 138
-0.048804 0.620000 0.080000 0 0 0
-0.046986 0.620000 0.078182 0 0 0
-0.055938 0.620000 0.200000 68 68 68
-0.046986 0.621818 0.080000 0 0 0
-0.046986 0.640000 0.096393 0 0 0
-0.056935 0.640000 0.200000 0 0 0
-0.046986 0.621982 0.220000 136 136 136
-0.046986 0.640000 0.209950 0 0 0
-0.046986 0.634545 0.240000 141 141 141
-0.062775 0.640000 0.240000 136 136 136
-0.046986 0.660000 0.096393 0 0 0
-0.056935 0.660000 0.200000 0 0 0
-0.046986 0.660000 0.209950 0 0 0
-0.046986 0.663607 0.100000 0 0 0
-0.046986 0.680000 0.114815 0 0 0
-0.056935 0.680000 0.200000 0 0 0
-0.046986 0.680000 0.209950 0 0 0
-0.046986 0.685185 0.120000 0 0 0
-0.046986 0.700000 0.133423 0 0 0
-0.056935 0.700000 0.200000 0 0 0
-0.046986 0.700000 0.209950 0 0 0
-0.046986 0.720000 0.133423 0 0 0
-0.056935 0.720000 0.200000 0 0 0
-0.046986 0.720000 0.209950 0 0 0
-0.046986 0.726577 0.140000 0 0 0
-0.046986 0.740000 0.152121 0 0 0
-0.056935 0.740000 0.200000 0 0 0
-0.046986 0.740000 0.209950 0 0 0
-0.046986 0.760000 0.152121 0 0 0
-0.056935 0.760000 0.200000 0 0 0
-0.046986 0.760000 0.209950 0 0 0
-0.046986 0.767879 0.160000 0 0 0
-0.046986 0.780000 0.170989 0 0 0
-0.056935 0.780000 0.200000 0 0 0
-0.046986 0.780000 0.209950 0 0 0
-0.046986 0.789011 0.180000 0 0 0
-0.056935 0.800000 0.200000 0 0 0
-0.046986 0.800000 0.190050 0 0 0
-0.046986 0.800000 0.209950 0 0 0
-0.056935 0.820000 0.200000 0 0 0
-0.046986 0.820000 0.190050 0 0 0
-0.046986 0.820000 0.209950 0 0 0
-0.046986 0.829950 0.200000 0 0 0
-0.026986 0.110989 0.240000 134 134 134
-0.026986 0.120000 0.230989 134 134 134
-0.026986 0.132500 0.220000 134 134 134
-0.026986 0.140000 0.212500 134 134 134
-0.026986 0.160000 0.212422 135 135 135
-0.026986 0.174493 0.200000 138 138 138
-0.026986 0.180000 0.194493 138 138 138
-0.026986 0.200000 0.194493 136 136 136
-0.036319 0.220000 0.180000 134 134 134
-0.026986 0.217544 0.180000 134 134 134
-0.026986 0.220000 0.177544 134 134 134
-0.036319 0.240000 0.180000 136 136 136
-0.026986 0.240000 0.168333 137 137 137
-0.036319 0.260000 0.180000 140 140 140
-0.026986 0.260000 0.168333 136 136 136
-0.036319 0.280000 0.180000 135 135 135
-0.026986 0.280000 0.168333 136 136 136
-0.036319 0.300000 0.180000 246 246 246
-0.026986 0.300000 0.168333 136 136 136
-0.036319 0.320000 0.180000 132 132 132
-0.026986 0.320000 0.168333 253 253 253
-0.032619 0.340000 0.160000 138 138 138
-0.026986 0.340000 0.168333 138 138 138
-0.036319 0.340000 0.180000 137 137 137
-0.044633 0.360000 0.140000 68 68 68
-0.026986 0.352437 0.140000 69 69 69
-0.026986 0.360000 0.134857 69 69 69
-0.026986 0.343774 0.160000 138 138 138
-0.036319 0.360000 0.180000 137 137 137
-0.040832 0.380000 0.100000 0 0 0
-0.041495 0.380000 0.140000 67 67 67
-0.026986 0.380000 0.121951 69 69 69
-0.040089 0.380000 0.200000 135 135 135
-0.043246 0.400000 0.080000 0 0 0
-0.036509 0.400000 0.100000 68 68 68
-0.026986 0.400000 0.123281 68 68 68
-0.046788 0.420000 0.060000 0 0 0
-0.043421 0.420000 0.080000 0 0 0
-0.039778 0.420000 0.100000 0 0 0
-0.044823 0.420000 0.120000 45 45 45
-0.026986 0.407778 0.120000 68 68 68
-0.026986 0.420000 0.115269 45 45 45
-0.026986 0.420000 0.135714 68 68 68
-0.026986 0.418448 0.140000 68 68 68
-0.030659 0.420000 0.140000 68 68 68
-0.026986 0.420000 0.142083 68 68 68
-0.039486 0.440000 0.100000 0 0 0
-0.026986 0.428800 0.120000 45 45 45
-0.044763 0.440000 0.120000 34 34 34
-0.026986 0.425556 0.140000 68 68 68
-0.026986 0.440000 0.132844 54 54 54
-0.041893 0.460000 0.100000 0 0 0
-0.026986 0.451169 0.140000 68 68 68
-0.036959 0.460000 0.140000 68 68 68
-0.026986 0.460000 0.145362 68 68 68
-0.026986 0.480000 0.140156 68 68 68
-0.031531 0.500000 0.140000 67 67 67
-0.026986 0.481818 0.140000 68 68 68
-0.026986 0.500000 0.138400 67 67 67
-0.026986 0.518182 0.140000 68 68 68
-0.026986 0.520000 0.140156 68 68 68
-0.036959 0.540000 0.140000 68 68 68
-0.026986 0.540000 0.145362 68 68 68
-0.045167 0.560000 0.060000 0 0 0
-0.026986 0.557222 0.080000 0 0 0
-0.026986 0.560000 0.074815 0 0 0
-0.029678 0.560000 0.080000 0 0 0
-0.026986 0.560000 0.087273 0 0 0
-0.026986 0.548831 0.140000 68 68 68
-0.026986 0.560000 0.132778 55 55 55
-0.045167 0.580000 0.060000 0 0 0
-0.026986 0.568235 0.080000 0 0 0
-0.036986 0.580000 0.080000 0 0 0
-0.026986 0.580000 0.096667 0 0 0
-0.026986 0.577193 0.100000 0 0 0
-0.046481 0.580000 0.120000 46 46 46
-0.026986 0.565260 0.120000 54 54 54
-0.036986 0.600000 0.080000 0 0 0
-0.026986 0.600000 0.096667 0 0 0
-0.036986 0.620000 0.080000 0 0 0
-0.026986 0.620000 0.096667 0 0 0
-0.026986 0.640000 0.099417 0 0 0
-0.026986 0.640000 0.209247 0 0 0
-0.026986 0.622301 0.220000 135 135 135
-0.026986 0.625866 0.240000 135 135 135
-0.026986 0.660000 0.099417 0 0 0
-0.026986 0.660000 0.209247 0 0 0
-0.026986 0.660582 0.100000 0 0 0
-0.026986 0.680000 0.116949 0 0 0
-0.026986 0.680000 0.209247 0 0 0
-0.026986 0.683051 0.120000 0 0 0
-0.026986 0.700000 0.135038 0 0 0
-0.026986 0.700000 0.209247 0 0 0
-0.026986 0.720000 0.135038 0 0 0
-0.026986 0.720000 0.209247 0 0 0
-0.026986 0.724962 0.140000 0 0 0
-0.026986 0.740000 0.153245 0 0 0
-0.026986 0.740000 0.209247 0 0 0
-0.026986 0.760000 0.153245 0 0 0
-0.026986 0.760000 0.209247 0 0 0
-0.026986 0.766755 0.160000 0 0 0
-0.026986 0.780000 0.171905 0 0 0
-0.026986 0.780000 0.209247 0 0 0
-0.026986 0.788095 0.180000 0 0 0
-0.026986 0.800000 0.190753 0 0 0
-0.026986 0.800000 0.209247 0 0 0
-0.026986 0.820000 0.190753 0 0 0
-0.026986 0.820000 0.209247 0 0 0
-0.026986 0.829247 0.200000 0 0 0
-0.006986 0.110000 0.240000 135 135 135
-0.006986 0.120000 0.230000 135 135 135
-0.006986 0.131173 0.220000 132 132 132
-0.006986 0.140000 0.211173 132 132 132
-0.006986 0.160000 0.211173 136 136 136
-0.006986 0.172579 0.200000 134 134 134
-0.006986 0.180000 0.192579 134 134 134
-0.006986 0.200000 0.192579 136 136 136
-0.006986 0.214493 0.180000 137 137 137
-0.006986 0.220000 0.174493 137 137 137
-0.019578 0.240000 0.160000 137 137 137
-0.006986 0.237094 0.160000 135 135 135
-0.006986 0.240000 0.157094 135 135 135
-0.019578 0.260000 0.160000 136 136 136
-0.006986 0.260000 0.157094 139 139 139
-0.019578 0.280000 0.160000 136 136 136
-0.006986 0.280000 0.143810 134 134 134
-0.019578 0.300000 0.160000 136 136 136
-0.006986 0.300000 0.143810 133 133 133
-0.019578 0.320000 0.160000 253 253 253
-0.006986 0.320000 0.143810 137 137 137
-0.019578 0.340000 0.160000 138 138 138
-0.006986 0.340000 0.143810 133 133 133
-0.010004 0.360000 0.140000 138 138 138
-0.006986 0.360000 0.141280 138 138 138
-0.006986 0.361429 0.140000 138 138 138
-0.006986 0.380000 0.126667 137 137 137
-0.023236 0.400000 0.120000 68 68 68
-0.006986 0.389231 0.120000 137 137 137
-0.006986 0.400000 0.112255 45 45 45
-0.010910 0.420000 0.100000 45 45 45
-0.006986 0.416941 0.100000 45 45 45
-0.006986 0.420000 0.097851 45 45 45
-0.025612 0.420000 0.140000 68 68 68
-0.007335 0.440000 0.100000 45 45 45
-0.006986 0.440000 0.099111 45 45 45
-0.006986 0.433793 0.120000 54 54 54
-0.006986 0.440000 0.101163 45 45 45
-0.019173 0.440000 0.140000 54 54 54
-0.006986 0.435394 0.140000 68 68 68
-0.006986 0.440000 0.150355 68 68 68
-0.006986 0.440314 0.100000 45 45 45
-0.006986 0.460000 0.142308 68 68 68
-0.025986 0.480000 0.140000 68 68 68
-0.006986 0.468824 0.140000 68 68 68
-0.006986 0.480000 0.136960 88 88 88
-0.006986 0.500000 0.134918 67 67 67
-0.025986 0.520000 0.140000 68 68 68
-0.006986 0.520000 0.136960 82 82 82
-0.006986 0.531176 0.140000 68 68 68
-0.006986 0.540000 0.142308 68 68 68
-0.014258 0.560000 0.080000 0 0 0
-0.006986 0.560000 0.086316 0 0 0
-0.006986 0.556568 0.100000 0 0 0
-0.015272 0.560000 0.100000 0 0 0
-0.006986 0.560000 0.108904 0 0 0
-0.019173 0.560000 0.140000 55 55 55
-0.006986 0.560000 0.150355 68 68 68
-0.019920 0.570746 0.091876 0 0 0
-0.006986 0.580000 0.094118 0 0 0
-0.006986 0.565167 0.120000 54 54 54
-0.006986 0.564160 0.140000 68 68 68
-0.006986 0.588197 0.100000 0 0 0
-0.025447 0.600000 0.100000 0 0 0
-0.006986 0.600000 0.107826 0 0 0
-0.025447 0.620000 0.100000 0 0 0
-0.006986 0.617638 0.120000 0 0 0
-0.011333 0.620000 0.120000 0 0 0
-0.006986 0.620000 0.121587 0 0 0
-0.024678 0.640000 0.100000 0 0 0
-0.011333 0.640000 0.120000 0 0 0
-0.006986 0.640000 0.125263 0 0 0
-0.016514 0.640000 0.220000 0 0 0
-0.006986 0.640000 0.229529 0 0 0
-0.006986 0.630000 0.240000 0 0 0
-0.024678 0.660000 0.100000 0 0 0
-0.011333 0.660000 0.120000 0 0 0
-0.006986 0.660000 0.125263 0 0 0
-0.016514 0.660000 0.220000 0 0 0
-0.006986 0.660000 0.229529 0 0 0
-0.011333 0.680000 0.120000 0 0 0
-0.006986 0.680000 0.125263 0 0 0
-0.016514 0.680000 0.220000 0 0 0
-0.006986 0.680000 0.229529 0 0 0
-0.006986 0.700000 0.137544 0 0 0
-0.016514 0.700000 0.220000 0 0 0
-0.006986 0.700000 0.229529 0 0 0
-0.006986 0.720000 0.137544 0 0 0
-0.016514 0.720000 0.220000 0 0 0
-0.006986 0.720000 0.229529 0 0 0
-0.006986 0.722456 0.140000 0 0 0
-0.006986 0.740000 0.155152 0 0 0
-0.016514 0.740000 0.220000 0 0 0
-0.006986 0.740000 0.229529 0 0 0
-0.006986 0.760000 0.155152 0 0 0
-0.016514 0.760000 0.220000 0 0 0
-0.006986 0.760000 0.229529 0 0 0
-0.006986 0.764848 0.160000 0 0 0
-0.006986 0.780000 0.173158 0 0 0
-0.016514 0.780000 0.220000 0 0 0
-0.006986 0.780000 0.229529 0 0 0
-0.006986 0.786842 0.180000 0 0 0
-0.006986 0.800000 0.191628 0 0 0
-0.016514 0.800000 0.220000 0 0 0
-0.006986 0.800000 0.229529 0 0 0
-0.006986 0.820000 0.191628 0 0 0
-0.016514 0.820000 0.220000 0 0 0
-0.006986 0.820000 0.229529 0 0 0
-0.006986 0.828372 0.200000 0 0 0
-0.016514 0.840000 0.220000 0 0 0
-0.006986 0.840000 0.210471 0 0 0
-0.006986 0.840000 0.229529 0 0 0
-0.016514 0.860000 0.220000 0 0 0
-0.006986 0.860000 0.210471 0 0 0
-0.006986 0.860000 0.229529 0 0 0
-0.006986 0.869529 0.220000 0 0 0
0.003014 0.120000 0.240000 0 0 0
0.013014 0.130256 0.220000 0 0 0
0.013014 0.140000 0.210256 0 0 0
0.003014 0.140000 0.240000 0 0 0
0.013014 0.140000 0.229744 0 0 0
0.013014 0.160000 0.210256 0 0 0
0.003014 0.160000 0.240000 0 0 0
0.013014 0.160000 0.229744 0 0 0
0.013014 0.171364 0.200000 0 0 0
0.013014 0.180000 0.191364 0 0 0
0.003014 0.180000 0.240000 0 0 0
0.013014 0.180000 0.229744 0 0 0
0.013014 0.200000 0.191364 0 0 0
0.003014 0.200000 0.240000 0 0 0
0.013014 0.200000 0.229744 0 0 0
0.013014 0.212739 0.180000 0 0 0
0.013014 0.220000 0.172739 0 0 0
0.003014 0.220000 0.240000 0 0 0
0.013014 0.220000 0.229744 0 0 0
0.013014 0.234493 0.160000 0 0 0
0.013014 0.240000 0.154493 0 0 0
0.003014 0.240000 0.240000 0 0 0
0.013014 0.240000 0.229744 0 0 0
0.013014 0.260000 0.154493 0 0 0
0.003014 0.260000 0.240000 0 0 0
0.013014 0.260000 0.229744 0 0 0
-0.003652 0.280000 0.140000 134 134 134
0.013014 0.276667 0.140000 0 0 0
0.013014 0.280000 0.136667 0 0 0
0.003014 0.280000 0.240000 0 0 0
0.013014 0.280000 0.229744 0 0 0
-0.003652 0.300000 0.140000 133 133 133
0.013014 0.300000 0.136667 0 0 0
0.003014 0.300000 0.240000 0 0 0
0.013014 0.300000 0.229744 0 0 0
0.011586 0.320000 0.120000 0 0 0
0.013014 0.319608 0.120000 0 0 0
0.013014 0.320000 0.119608 0 0 0
-0.003652 0.320000 0.140000 137 137 137
0.003014 0.320000 0.240000 0 0 0
0.013014 0.320000 0.229744 0 0 0
0.011586 0.340000 0.120000 0 0 0
0.013014 0.340000 0.117647 0 0 0
-0.003652 0.340000 0.140000 133 133 133
0.003014 0.340000 0.240000 0 0 0
0.013014 0.340000 0.229744 0 0 0
0.011586 0.360000 0.120000 0 0 0
0.013014 0.360000 0.117647 0 0 0
-0.003652 0.360000 0.140000 138 138 138
0.003014 0.360000 0.240000 0 0 0
0.013014 0.360000 0.229744 0 0 0
0.011586 0.380000 0.120000 0 0 0
0.013014 0.380000 0.117647 0 0 0
0.013014 0.374286 0.240000 133 133 133
0.013014 0.400000 0.105455 0 0 0
0.013014 0.408654 0.100000 0 0 0
0.013014 0.420000 0.092237 0 0 0
0.013014 0.440000 0.081579 0 0 0
0.013014 0.440000 0.109943 0 0 0
0.013014 0.434809 0.120000 54 54 54
0.005981 0.440000 0.140000 53 53 53
0.013014 0.440000 0.132826 53 53 53
0.013014 0.445418 0.100000 0 0 0
0.013014 0.453289 0.140000 68 68 68
0.013014 0.460000 0.143008 68 68 68
0.013014 0.470811 0.140000 88 88 88
0.013014 0.480000 0.137344 88 88 88
0.013014 0.500000 0.135447 82 82 82
0.013014 0.520000 0.137302 86 86 86
0.013014 0.529444 0.140000 86 86 86
0.013014 0.540000 0.142857 67 67 67
0.007068 0.560000 0.100000 45 45 45
0.005844 0.560000 0.140000 54 54 54
0.013014 0.546355 0.140000 67 67 67
0.013014 0.560000 0.132444 54 54 54
0.013014 0.569167 0.100000 45 45 45
0.013014 0.580000 0.097709 46 46 46
0.013014 0.566885 0.120000 54 54 54
0.013014 0.586500 0.100000 46 46 46
0.013014 0.600000 0.104909 60 60 60
-0.001857 0.620000 0.120000 0 0 0
0.013014 0.620000 0.116159 65 65 65
0.013014 0.625859 0.120000 65 65 65
0.013014 0.636087 0.140000 131 131 131
0.003784 0.640000 0.140000 131 131 131
0.013014 0.640000 0.143609 131 131 131
0.003271 0.640000 0.240000 134 134 134
0.003784 0.660000 0.140000 106 106 106
0.013014 0.660000 0.150909 135 135 135
0.003271 0.660000 0.240000 133 133 133
0.003784 0.680000 0.140000 135 135 135
0.013014 0.680000 0.150909 131 131 131
0.003271 0.680000 0.240000 135 135 135
0.003784 0.700000 0.140000 136 136 136
0.013014 0.700000 0.150909 136 136 136
0.003271 0.700000 0.240000 136 136 136
0.003784 0.720000 0.140000 127 127 127
0.013014 0.720000 0.150909 135 135 135
0.003271 0.720000 0.240000 136 136 136
0.013014 0.740000 0.158182 135 135 135
0.003271 0.740000 0.240000 135 135 135
0.013014 0.760000 0.158182 134 134 134
0.003271 0.760000 0.240000 132 132 132
0.013014 0.761818 0.160000 134 134 134
0.013014 0.780000 0.175152 134 134 134
0.003271 0.780000 0.240000 135 135 135
0.013014 0.784848 0.180000 134 134 134
0.013014 0.800000 0.193072 135 135 135
0.003271 0.800000 0.240000 139 139 139
0.013014 0.820000 0.193072 138 138 138
0.003271 0.820000 0.240000 133 133 133
0.013014 0.826928 0.200000 138 138 138
0.013014 0.840000 0.211494 137 137 137
0.003271 0.840000 0.240000 134 134 134
0.013014 0.860000 0.211494 135 135 135
0.003271 0.860000 0.240000 137 137 137
0.013014 0.868506 0.220000 135 135 135
0.003271 0.880000 0.240000 135 135 135
0.013014 0.880000 0.230256 135 135 135
0.013014 0.889744 0.240000 135 135 135
0.022758 0.140000 0.220000 0 0 0
0.022758 0.160000 0.220000 0 0 0
0.033014 0.170526 0.200000 0 0 0
0.033014 0.180000 0.190526 0 0 0
0.022758 0.180000 0.220000 0 0 0
0.033014 0.180000 0.209474 0 0 0
0.033014 0.200000 0.190526 0 0 0
0.022758 0.200000 0.220000 0 0 0
0.033014 0.200000 0.209474 0 0 0
0.033014 0.211628 0.180000 0 0 0
0.033014 0.220000 0.171628 0 0 0
0.022758 0.220000 0.220000 0 0 0
0.033014 0.220000 0.209474 0 0 0
0.033014 0.232903 0.160000 0 0 0
0.033014 0.240000 0.152903 0 0 0
0.022758 0.240000 0.220000 0 0 0
0.033014 0.240000 0.209474 0 0 0
0.033014 0.260000 0.152903 0 0 0
0.022758 0.260000 0.220000 0 0 0
0.033014 0.260000 0.209474 0 0 0
0.033014 0.274493 0.140000 0 0 0
0.033014 0.280000 0.134493 0 0 0
0.022758 0.280000 0.220000 0 0 0
0.033014 0.280000 0.209474 0 0 0
0.033014 0.300000 0.134493 0 0 0
0.022758 0.300000 0.220000 0 0 0
0.033014 0.300000 0.209474 0 0 0
0.033014 0.316260 0.120000 0 0 0
0.033014 0.320000 0.116260 0 0 0
0.022758 0.320000 0.220000 0 0 0
0.033014 0.320000 0.209474 0 0 0
0.025514 0.340000 0.100000 0 0 0
0.033014 0.338349 0.100000 0 0 0
0.033014 0.340000 0.098349 0 0 0
0.022758 0.340000 0.220000 0 0 0
0.033014 0.340000 0.209474 0 0 0
0.025514 0.360000 0.100000 0 0 0
0.033014 0.360000 0.098349 0 0 0
0.022758 0.360000 0.220000 0 0 0
0.033014 0.360000 0.209474 0 0 0
0.025514 0.380000 0.100000 0 0 0
0.033014 0.380000 0.086154 0 0 0
0.033014 0.377857 0.220000 136 136 136
0.033014 0.374085 0.240000 135 135 135
0.025514 0.400000 0.100000 0 0 0
0.033014 0.400000 0.086154 0 0 0
0.033014 0.420000 0.086154 0 0 0
0.033014 0.426585 0.100000 0 0 0
0.020792 0.440000 0.100000 0 0 0
0.033014 0.434754 0.120000 54 54 54
0.033014 0.440000 0.132743 54 54 54
0.033014 0.450020 0.140000 67 67 67
0.033014 0.460000 0.147000 67 67 67
0.026091 0.480000 0.140000 68 68 68
0.033014 0.480000 0.141406 68 68 68
0.033014 0.495000 0.140000 68 68 68
0.033014 0.500000 0.139549 68 68 68
0.033014 0.505000 0.140000 68 68 68
0.026091 0.520000 0.140000 67 67 67
0.033014 0.520000 0.141406 67 67 67
0.033014 0.540000 0.147000 67 67 67
0.033014 0.549980 0.140000 67 67 67
0.033014 0.560000 0.132743 55 55 55
0.026829 0.580000 0.080000 0 0 0
0.033014 0.561250 0.080000 0 0 0
0.033014 0.580000 0.077391 0 0 0
0.015111 0.580000 0.100000 46 46 46
0.033014 0.580000 0.085769 0 0 0
0.033014 0.580000 0.117480 44 44 44
0.033014 0.574595 0.120000 44 44 44
0.033014 0.571756 0.140000 68 68 68
0.030386 0.580000 0.140000 68 68 68
0.033014 0.580000 0.129624 44 44 44
0.033014 0.580000 0.143622 68 68 68
0.033014 0.582609 0.080000 0 0 0
0.033014 0.585120 0.120000 44 44 44
0.025833 0.600000 0.120000 68 68 68
0.033014 0.583046 0.140000 68 68 68
0.033014 0.600000 0.126526 68 68 68
0.024387 0.620000 0.120000 68 68 68
0.033014 0.620000 0.129362 68 68 68
0.033014 0.640000 0.136701 70 70 70
0.021586 0.640000 0.140000 131 131 131
0.033014 0.645000 0.140000 70 70 70
0.033014 0.653333 0.160000 134 134 134
0.019911 0.660000 0.160000 135 135 135
0.033014 0.660000 0.175200 135 135 135
0.019911 0.680000 0.160000 131 131 131
0.033014 0.680000 0.175200 134 134 134
0.019911 0.700000 0.160000 136 136 136
0.033014 0.700000 0.175200 136 136 136
0.019911 0.720000 0.160000 135 135 135
0.033014 0.720000 0.175200 132 132 132
0.019911 0.740000 0.160000 135 135 135
0.033014 0.740000 0.175200 135 135 135
0.019911 0.760000 0.160000 134 134 134
0.033014 0.760000 0.175200 134 134 134
0.033014 0.780000 0.178868 133 133 133
0.033014 0.781132 0.180000 133 133 133
0.033014 0.800000 0.195267 134 134 134
0.033014 0.820000 0.195267 137 137 137
0.033014 0.824733 0.200000 137 137 137
0.033014 0.840000 0.212903 134 134 134
0.033014 0.860000 0.212903 136 136 136
0.033014 0.867097 0.220000 136 136 136
0.033014 0.880000 0.231236 136 136 136
0.033014 0.888764 0.240000 136 136 136
0.042488 0.180000 0.200000 0 0 0
0.042488 0.200000 0.200000 0 0 0
0.053014 0.210811 0.180000 0 0 0
0.053014 0.220000 0.170811 0 0 0
0.042488 0.220000 0.200000 0 0 0
0.053014 0.220000 0.189189 0 0 0
0.053014 0.231834 0.160000 0 0 0
0.053014 0.240000 0.151834 0 0 0
0.042488 0.240000 0.200000 0 0 0
0.053014 0.240000 0.189189 0 0 0
0.053014 0.260000 0.151834 0 0 0
0.042488 0.260000 0.200000 0 0 0
0.053014 0.260000 0.189189 0 0 0
0.053014 0.273072 0.140000 0 0 0
0.053014 0.280000 0.133072 0 0 0
0.042488 0.280000 0.200000 0 0 0
0.053014 0.280000 0.189189 0 0 0
0.053014 0.300000 0.133072 0 0 0
0.042488 0.300000 0.200000 0 0 0
0.053014 0.300000 0.189189 0 0 0
0.053014 0.314388 0.120000 0 0 0
0.053014 0.320000 0.114388 0 0 0
0.042488 0.320000 0.200000 0 0 0
0.053014 0.320000 0.189189 0 0 0
0.053014 0.335873 0.100000 0 0 0
0.053014 0.340000 0.095873 0 0 0
0.042488 0.340000 0.200000 0 0 0
0.053014 0.340000 0.189189 0 0 0
0.053014 0.360000 0.095873 0 0 0
0.042488 0.360000 0.200000 0 0 0
0.053014 0.360000 0.189189 0 0 0
0.037225 0.380000 0.080000 0 0 0
0.053014 0.377391 0.080000 0 0 0
0.053014 0.380000 0.077391 0 0 0
0.046348 0.380000 0.200000 132 132 132
0.053014 0.380000 0.193077 132 132 132
0.053014 0.378100 0.220000 136 136 136
0.053014 0.380000 0.216216 136 136 136
0.053014 0.363368 0.240000 132 132 132
0.037225 0.400000 0.080000 0 0 0
0.053014 0.400000 0.077391 0 0 0
0.050684 0.400000 0.200000 133 133 133
0.053014 0.400000 0.198345 133 133 133
0.053014 0.400000 0.202807 133 133 133
0.037225 0.420000 0.080000 0 0 0
0.053014 0.420000 0.077391 0 0 0
0.053014 0.401875 0.200000 133 133 133
0.053014 0.425217 0.080000 0 0 0
0.053014 0.435000 0.100000 45 45 45
0.044504 0.440000 0.120000 44 44 44
0.053014 0.440000 0.108966 45 45 45
0.051372 0.460000 0.100000 46 46 46
0.053014 0.455294 0.100000 46 46 46
0.053014 0.460000 0.096522 46 46 46
0.040765 0.460000 0.120000 54 54 54
0.046222 0.460000 0.140000 54 54 54
0.049692 0.480000 0.100000 0 0 0
0.053014 0.480000 0.087500 0 0 0
0.053014 0.480000 0.108197 0 0 0
0.053014 0.472088 0.120000 54 54 54
0.053014 0.465650 0.140000 54 54 54
0.053014 0.480000 0.148951 68 68 68
0.053014 0.484013 0.100000 0 0 0
0.034146 0.500000 0.140000 68 68 68
0.053014 0.500000 0.147246 68 68 68
0.053014 0.520000 0.148811 68 68 68
0.047160 0.540000 0.100000 0 0 0
0.053014 0.523182 0.100000 46 46 46
0.053014 0.540000 0.081026 0 0 0
0.039130 0.540000 0.120000 56 56 56
0.053014 0.526261 0.120000 54 54 54
0.046012 0.540000 0.140000 54 54 54
0.053014 0.534094 0.140000 54 54 54
0.042036 0.560000 0.100000 46 46 46
0.053014 0.560000 0.087164 0 0 0
0.038654 0.560000 0.120000 54 54 54
0.053014 0.573333 0.080000 0 0 0
0.053014 0.580000 0.065000 0 0 0
0.046469 0.580000 0.100000 0 0 0
0.041804 0.580000 0.140000 68 68 68
0.049681 0.600000 0.080000 0 0 0
0.053014 0.600000 0.076667 0 0 0
0.043094 0.600000 0.100000 0 0 0
0.038224 0.600000 0.120000 68 68 68
0.050707 0.600000 0.200000 135 135 135
0.053014 0.600000 0.192500 135 135 135
